# .PCD v0.7 - Point Cloud Data file format
VERSION 0.7
FIELDS x y z
SIZE 4 4 4
TYPE F F F
COUNT 1 1 1
WIDTH 1522
HEIGHT 1
VIEWPOINT 0 0 0 1 0 0 0
POINTS 1522
DATA ascii
1.1626687 3.2213428 -1.4402992
1.1739814 3.230757 -1.4300325
1.1853635 3.2406094 -1.4198178
1.1965077 3.2473452 -1.4089389
1.207881 3.2564185 -1.3984993
1.2191126 3.2636201 -1.3876593
1.2304189 3.2713816 -1.3769019
1.2414186 3.2757194 -1.3654672
1.2525468 3.2812688 -1.3542491
1.2639632 3.2895277 -1.343514
1.2759157 3.302707 -1.3336413
1.2857397 3.2953155 -1.3200321
1.2950263 3.283376 -1.3056741
1.3043616 3.2724812 -1.2915744
1.3141479 3.2661321 -1.2783229
1.3239691 3.2604368 -1.2652282
1.333716 3.2544291 -1.2521253
1.3433063 3.2474363 -1.238907
1.3525319 3.237808 -1.2253163
1.3618481 3.2293546 -1.211975
1.3720059 3.227948 -1.1997836
1.3828802 3.2322438 -1.1884816
1.3944919 3.2421033 -1.1780028
1.406486 3.2545793 -1.16787
1.4179704 3.2629611 -1.1570932
1.4303651 3.2777512 -1.1471941
1.442987 3.2937653 -1.1374011
1.45559 3.3092148 -1.1274598
1.4689069 3.3291972 -1.1180577
1.4828174 3.3526814 -1.1090244
1.496387 3.3732474 -1.0995055
1.5091417 3.387892 -1.0891457
1.5207092 3.3944552 -1.0777245
1.5320399 3.3993852 -1.0660846
1.5432861 3.4037101 -1.0543609
1.5544779 3.4076483 -1.0425828
1.5655544 3.4108369 -1.0307128
1.5765634 3.4136007 -1.0187927
1.5877323 3.4173148 -1.0069739
1.5989858 3.4214957 -0.99519819
1.6099188 3.4237683 -0.98321778
1.6197085 3.4194686 -0.97058058
1.6287038 3.4108293 -0.95755494
1.637388 3.4007237 -0.94444758
1.6452397 3.3863175 -0.93100786
1.653179 3.3728015 -0.91773504
1.6622436 3.3657544 -0.90510947
1.6715386 3.3601658 -0.89265651
1.6809728 3.3555028 -0.88032109
1.689621 3.3468988 -0.86770856
1.697283 3.333461 -0.85478032
1.7052786 3.3220828 -0.84208703
1.7147653 3.318536 -0.83002782
1.7250009 3.3188593 -0.81826788
1.7347527 3.3168423 -0.80636257
1.7443998 3.3144095 -0.7944532
1.754535 3.3144376 -0.7827208
1.7646132 3.3142459 -0.77098769
1.7757424 3.319082 -0.75955307
1.7863187 3.3212788 -0.74796367
1.7980272 3.3287308 -0.73664677
1.8104854 3.3395236 -0.72546875
1.8221265 3.3464372 -0.71406794
1.8329096 3.3494041 -0.70247078
1.8442769 3.354965 -0.69097888
1.8549953 3.3576028 -0.67935747
1.8648299 3.3563735 -0.66759408
1.8752536 3.3577645 -0.65593827
1.886621 3.3632252 -0.64441597
1.8976043 3.366997 -0.63282979
1.9087132 3.3712747 -0.62125051
1.9202467 3.3772919 -0.60970384
1.9316405 3.3826683 -0.59812582
1.9419446 3.3835256 -0.58644742
1.9548868 3.3951328 -0.57495433
1.9682579 3.4083102 -0.56343776
1.9822807 3.4239061 -0.5518958
1.995195 3.4348896 -0.54024702
2.008163 3.4459412 -0.52855659
2.0199552 3.4522707 -0.51680458
2.0310955 3.4560201 -0.50502938
2.0424724 3.460655 -0.49324739
2.0535784 3.464226 -0.48145831
2.0629563 3.4612668 -0.46970224
-0.069314599 2.9790041 -2.8189118
-0.058984399 2.9841006 -2.8084965
-0.046881318 2.9802897 -2.7932901
-0.031152725 2.9577 -2.7681146
-0.016178727 2.9383466 -2.7448077
-0.0044609308 2.9355619 -2.7303636
0.0076879859 2.9303219 -2.7146657
0.02089107 2.919142 -2.6959217
0.036814094 2.8925955 -2.669306
0.051757276 2.8706706 -2.6452453
0.065508008 2.8547795 -2.6244199
0.076367676 2.8549697 -2.6118844
0.084004223 2.8739202 -2.6088455
0.092026293 2.8910964 -2.604815
0.10062897 2.9052384 -2.5991797
0.11022973 2.9136431 -2.590626
0.11984587 2.9221461 -2.5820844
0.13074237 2.9227517 -2.5696332
0.20200056 2.8092387 -2.4521465
0.21506393 2.792135 -2.431746
0.22621596 2.7879627 -2.417532
0.23629433 2.7913563 -2.4068859
0.24560839 2.8004577 -2.3988781
0.25327301 2.8222892 -2.3966913
0.32679009 3.1211703 -2.4031858
0.33582082 3.142319 -2.3992052
0.34476519 3.1652458 -2.3958707
0.3537522 3.1887834 -2.392674
0.3638353 3.2020733 -2.3850603
0.37472415 3.2073743 -2.3740597
0.38600209 3.2085741 -2.3613489
0.39782816 3.2035391 -2.3460884
0.41007888 3.1931508 -2.328692
0.42274955 3.1769845 -2.3090346
0.43605426 3.151881 -2.2858982
0.44771722 3.1458104 -2.2705088
0.45923218 3.1411092 -2.2557116
0.47087529 3.134186 -2.2400835
0.48181704 3.1364167 -2.2280788
0.49141508 3.1581151 -2.2236092
0.50055832 3.1880972 -2.2222099
0.50987554 3.2175 -2.2204309
0.52009839 3.2343442 -2.2137461
0.53081518 3.2440174 -2.2042873
0.54152513 3.2544372 -2.1950655
0.55247462 3.2611415 -2.1844254
0.56349331 3.2668989 -2.1734145
0.57443696 3.2745063 -2.1630583
0.58537376 3.2827942 -2.1529188
0.59632647 3.2913582 -2.1428459
0.60735178 3.2988865 -2.1323709
0.61841154 3.3061559 -2.1217763
0.62963521 3.3095868 -2.1098132
0.64099419 3.3091872 -2.0965176
0.65231109 3.3096478 -2.0835342
0.66367447 3.3081625 -2.0699
0.67481768 3.3141201 -2.0588062
0.68591201 3.3227475 -2.0485883
0.69701087 3.3325145 -2.0387151
0.70818806 3.34006 -2.028069
0.71953201 3.3392727 -2.0146718
0.73088449 3.3367703 -2.0007377
0.74221998 3.3336265 -1.9866266
0.75355226 3.3279531 -1.9717425
0.76484472 3.3222277 -1.9568889
0.77608854 3.3181684 -1.9426032
0.78730202 3.3133256 -1.928112
0.7984798 3.3064983 -1.913053
0.80962139 3.3037527 -1.8992891
0.82076693 3.3072855 -1.8874478
0.83190471 3.3090847 -1.8750836
0.8430084 3.3077066 -1.8617834
0.8540566 3.303282 -1.8476123
0.86504698 3.2971838 -1.8329942
0.8759526 3.2885106 -1.8176843
0.88664603 3.27158 -1.8000854
0.89740741 3.2621367 -1.7847062
0.90815693 3.2545936 -1.7699244
0.91878104 3.2441275 -1.7543902
0.92937505 3.2347729 -1.7392324
0.93994021 3.2263134 -1.7243829
0.95045358 3.2178719 -1.7095989
0.96092361 3.2096775 -1.6949409
0.97147137 3.2048438 -1.6812248
0.98197114 3.1996911 -1.667466
0.99239802 3.1936858 -1.6535302
1.0028658 3.1894691 -1.6400962
1.0133113 3.1854537 -1.6267495
1.0238861 3.1846311 -1.6142333
1.0340039 3.1753995 -1.5996655
1.0435665 3.1570542 -1.5829436
1.0524759 3.1290052 -1.5640005
1.0618343 3.1109078 -1.5475916
1.0721232 3.1094005 -1.5351969
1.082723 3.1130221 -1.5240158
1.093794 3.1236341 -1.5144345
1.1053213 3.1403077 -1.5061846
1.1167305 3.1543887 -1.4972758
1.1281883 3.168391 -1.4882867
1.1397362 3.1828706 -1.4793394
1.1510842 3.1940806 -1.4696202
1.1622884 3.2030013 -1.4593651
1.1737676 3.214874 -1.4496973
1.1851165 3.2247059 -1.4395541
1.1962433 3.2316139 -1.428771
1.2070686 3.2349408 -1.417238
1.218416 3.2438853 -1.406824
1.2293979 3.2486489 -1.3955504
1.240528 3.2548335 -1.3845413
1.2509125 3.2533295 -1.3720365
1.261728 3.2562554 -1.3603916
1.2732959 3.2664063 -1.3500926
1.2856503 3.2836392 -1.3410552
1.2966998 3.2882078 -1.3296436
1.3068662 3.2847164 -1.3167818
1.3164594 3.2763989 -1.3031025
1.3265629 3.2729332 -1.2903218
1.3364234 3.2676375 -1.2772603
1.346054 3.26072 -1.263968
1.3554256 3.2520335 -1.2504331
1.3647349 3.2432578 -1.2369428
1.3731122 3.2275326 -1.2224001
1.3821936 3.2179091 -1.2089138
1.392542 3.2183535 -1.1970489
1.403404 3.2227128 -1.1857903
1.4151952 3.2338498 -1.1755347
1.4267048 3.2426598 -1.1648915
1.4392958 3.2589695 -1.1552966
1.451484 3.2720163 -1.145167
1.4639772 3.2868388 -1.1352286
1.4775877 3.3088744 -1.1262089
1.4914119 3.3317492 -1.1171992
1.5057001 3.3570774 -1.1084044
1.51911 3.3760321 -1.0986717
1.5318714 3.3903611 -1.0882709
1.5435411 3.3974626 -1.0769174
1.5547978 3.4018667 -1.065215
1.5659878 3.4058111 -1.0534484
1.5770345 3.408848 -1.0415697
1.5880086 3.4114392 -1.0296383
1.5992703 3.4157231 -1.0178931
1.6107103 3.4209993 -1.0062459
1.6221566 3.4262426 -0.99458086
1.6332128 3.4292047 -0.9826681
1.6433541 3.4270303 -0.97023976
1.6525161 3.4195564 -0.95731968
1.6618657 3.4133494 -0.9445715
1.6699935 3.4007537 -0.93127888
1.6777954 3.3867776 -0.91794026
1.6861353 3.376024 -0.90496695
1.6954134 3.3704665 -0.892501
1.7029369 3.3560503 -0.87935019
1.7106149 3.3428023 -0.86637872
1.718219 3.329531 -0.85348594
1.7271513 3.3232234 -0.84119093
1.7368783 3.3210261 -0.82923567
1.7471058 3.3213699 -0.81747997
1.756922 3.3197725 -0.80560577
1.766762 3.3183744 -0.79376495
1.7764305 3.3162463 -0.78189874
1.7862566 3.3149483 -0.77010494
1.7961934 3.3142402 -0.7583636
1.8069422 3.3173163 -0.74684238
1.8188552 3.3256633 -0.73558915
1.831578 3.3375337 -0.72447854
1.8437033 3.3465641 -0.71318865
1.855428 3.3537028 -0.7017827
1.8669899 3.3600409 -0.69032025
1.8770621 3.3598654 -0.67858529
1.8872991 3.3604443 -0.6668911
1.8977053 3.3617771 -0.65523177
1.9081588 3.3633282 -0.64358509
1.9188325 3.3658154 -0.63196999
1.9291723 3.3669221 -0.62031841
1.9396415 3.3685825 -0.60868698
1.9514757 3.3757985 -0.5971778
1.9666007 3.3961747 -0.58589244
1.9802269 3.4102643 -0.57441539
1.9937745 3.4238465 -0.56287348
2.0080144 3.4399574 -0.55130506
2.0219254 3.4545624 -0.53965575
2.0344071 3.4634531 -0.52790987
2.0447652 3.464113 -0.51610017
2.0554628 3.4660928 -0.50430167
2.0662844 3.4685476 -0.49250513
2.0755544 3.4652083 -0.4807294
-0.044845045 2.9733922 -2.8132589
-0.032069623 2.9658782 -2.7960789
-0.015954554 2.9406989 -2.7695019
-0.0027305484 2.930012 -2.7508099
0.0090793371 2.9265244 -2.7360094
0.021784484 2.9180043 -2.7185965
0.035350502 2.9044225 -2.6986029
0.049814701 2.885349 -2.6758506
0.066286206 2.8542454 -2.6470089
0.080808163 2.8333566 -2.6236224
0.092365265 2.8290913 -2.6088719
0.10066098 2.8439839 -2.603894
0.1081357 2.8642228 -2.6015396
0.11747742 2.8735902 -2.593621
0.1276648 2.8779166 -2.5831456
0.20225978 2.8124039 -2.4760721
0.21691161 2.7842066 -2.4502511
0.22907281 2.7726905 -2.4325337
0.23895359 2.7772667 -2.4224923
0.24840415 2.7851212 -2.4139748
0.25797105 2.79231 -2.4051137
0.26727909 2.8016884 -2.3972378
0.27490664 2.8245852 -2.3955364
0.28111541 2.8597314 -2.3993099
0.3487922 3.133858 -2.4063911
0.35733631 3.1611497 -2.4049993
0.36609352 3.1875298 -2.403075
0.37600151 3.2029359 -2.3963857
0.38684162 3.2088478 -2.3856475
0.39799121 3.2114646 -2.3735209
0.40981504 3.2062714 -2.358171
0.42198792 3.1964457 -2.3409684
0.43448076 3.181915 -2.3219242
0.44697207 3.1663144 -2.3025475
0.45921609 3.1527617 -2.2840977
0.47109711 3.1430357 -2.2672648
0.48253545 3.1386616 -2.2526186
0.4934437 3.1414964 -2.24084
0.50418949 3.1468055 -2.2300234
0.51463556 3.1570327 -2.221091
0.52438021 3.1793363 -2.2167468
0.53414655 3.2029431 -2.2127841
0.54422498 3.2228653 -2.2073081
0.5548346 3.2345192 -2.1986318
0.56562442 3.243541 -2.1889243
0.57654357 3.2505677 -2.178443
0.58741605 3.2590764 -2.1684785
0.59815824 3.2712195 -2.159801
0.60902852 3.28141 -2.1503649
0.6200639 3.288326 -2.1397142
0.63097686 3.2991803 -2.1304359
0.6418463 3.3125045 -2.1219797
0.65289921 3.3216908 -2.1120181
0.66416901 3.3245404 -2.0998242
0.6754775 3.3259833 -2.0871463
0.68672383 3.3297575 -2.0752687
0.69796175 3.3341758 -2.0636024
0.70922881 3.3375456 -2.0515742
0.72055811 3.337455 -2.038393
0.73190516 3.3352187 -2.0245204
0.74324018 3.3320181 -2.0103605
0.75454897 3.328613 -1.9961671
0.76585531 3.3214695 -1.9808086
0.77711928 3.3132837 -1.9651736
0.78833145 3.3049042 -1.9495384
0.79949045 3.2974675 -1.9342592
0.81060165 3.2902372 -1.9191002
0.82169014 3.2880175 -1.905533
0.832784 3.289664 -1.8931676
0.84390867 3.2949197 -1.8818944
0.8549909 3.2956278 -1.8692495
0.8660332 3.2942164 -1.8559884
0.87701547 3.2904007 -1.8420458
0.88790005 3.2831247 -1.8271357
0.89849252 3.2646072 -1.809052
0.9091419 3.2526171 -1.7929418
0.91977537 3.2426469 -1.7774814
0.93033344 3.2321398 -1.7619404
0.94095719 3.2257097 -1.7475975
0.9514184 3.215729 -1.7323337
0.96183097 3.2060502 -1.7172204
0.9723382 3.2003376 -1.7032368
0.98275054 3.193259 -1.6889365
0.99307775 3.1852639 -1.6744486
1.003314 3.1763666 -1.6597843
1.0134851 3.1672328 -1.6451222
1.0243366 3.1727016 -1.6342325
1.0349548 3.1734807 -1.6221484
1.0447781 3.1599743 -1.6065234
1.0542302 3.1413143 -1.5897193
1.062993 3.1127937 -1.5706344
1.0719651 3.0899861 -1.5530915
1.082106 3.0871403 -1.5404288
1.0925049 3.0885236 -1.5287881
1.1037534 3.1022594 -1.5200205
1.1152666 3.1189511 -1.5118693
1.1264148 3.1297987 -1.502316
1.137962 3.1453669 -1.4937743
1.1496574 3.16204 -1.4854059
1.1612155 3.1761978 -1.4764106
1.1724368 3.1856511 -1.4663367
1.1836097 3.1941574 -1.4560232
1.1949257 3.203974 -1.4459527
1.2063138 3.2142122 -1.4359303
1.2169545 3.2159808 -1.4241292
1.22785 3.2204702 -1.4128823
1.238323 3.2205145 -1.4007375
1.2489657 3.2223804 -1.3889642
1.2595937 3.2241275 -1.3771713
1.2708085 3.2315462 -1.3664691
1.2826321 3.2444751 -1.3567817
1.2947617 3.2597759 -1.3474805
1.3070557 3.2760298 -1.3382859
1.3185114 3.2843211 -1.3275769
1.3291366 3.2851975 -1.315515
1.3400168 3.2883003 -1.3038528
1.349954 3.2835319 -1.2908258
1.3594601 3.2755129 -1.2772839
1.3687589 3.2662175 -1.2635837
1.3773975 3.2521479 -1.2491581
1.3857806 3.2366841 -1.2345937
1.3937284 3.2185328 -1.2196951
1.403466 3.2144563 -1.2071161
1.4137071 3.214299 -1.1951771
1.4251065 3.2225978 -1.1845356
1.4364921 3.2306097 -1.1738205
1.4487741 3.2447183 -1.1639698
1.4612037 3.2594812 -1.154152
1.4726669 3.2673113 -1.14329
1.4855485 3.2844579 -1.133692
1.4995542 3.3085644 -1.1249642
1.5137224 3.3330953 -1.1161799
1.5280133 3.3577769 -1.1073003
1.5412258 3.3750331 -1.0973529
1.5541954 3.3903692 -1.0870872
1.5661966 3.3994181 -1.0759814
1.5774963 3.4040501 -1.0643098
1.5885165 3.4069574 -1.0524241
1.5995617 3.4100025 -1.0405524
1.6109416 3.4149821 -1.0288959
1.6223558 3.4200919 -1.0172412
1.6338794 3.4257572 -1.0056329
1.6453254 3.4309118 -0.99395466
1.6564192 3.434056 -0.98205745
1.6668044 3.4333193 -0.96977007
1.6762892 3.4278057 -0.95703566
1.685921 3.4232657 -0.94443464
1.695124 3.4166324 -0.93167752
1.7023649 3.3999956 -0.91807282
1.7098305 3.3849533 -0.90470499
1.7176942 3.3723285 -0.89163089
1.7248303 3.3563793 -0.87836254
1.7311883 3.3369629 -0.86491394
1.7396464 3.3283584 -0.85240591
1.7496276 3.32741 -0.8405214
1.7598567 3.327728 -0.82874507
1.7695646 3.3256061 -0.81681132
1.7788568 3.3216169 -0.80477685
1.7875919 3.3151581 -0.79261738
1.7958713 3.3067725 -0.7803849
1.8050504 3.3027222 -0.76846266
1.8157467 3.3056757 -0.75696754
1.8272095 3.3120615 -0.74565434
1.8411838 3.3295324 -0.73488939
1.8548301 3.3452723 -0.72396427
1.8671021 3.354768 -0.71268368
1.8788998 3.3620827 -0.70127255
1.8896506 3.3648288 -0.68964893
1.8996814 3.364516 -0.67790568
1.909758 3.3644469 -0.66618526
1.9201474 3.3657258 -0.6545229
1.9305329 3.3670094 -0.64286667
1.9395934 3.3628948 -0.63106185
1.948606 3.3587015 -0.61928797
1.9597626 3.3632395 -0.60775363
1.9769814 3.3919022 -0.59671861
1.9913366 3.4088051 -0.58533394
2.0046899 3.4215405 -0.5738101
2.0198698 3.441201 -0.56232989
2.034883 3.4599378 -0.55075407
2.0488648 3.474467 -0.53906107
2.0597277 3.4769766 -0.52723366
2.0687838 3.4726918 -0.51538098
2.0785809 3.4712799 -0.50356543
2.0882649 3.4695108 -0.49176982
-0.014978051 2.9391372 -2.7921221
-0.00088578463 2.9238508 -2.7708833
0.01127398 2.9184182 -2.7550235
0.022561669 2.9174988 -2.7416122
0.035976291 2.9047525 -2.7219687
0.050324738 2.8863337 -2.6994364
0.064505041 2.8682477 -2.6772051
0.080119729 2.8412721 -2.6504807
0.094217777 2.8222721 -2.6280546
0.10653543 2.8131888 -2.6108506
0.11577934 2.8223011 -2.603004
0.12439132 2.8355048 -2.5971925
0.1346184 2.8389914 -2.5864146
0.14542687 2.8388298 -2.5738008
0.1567654 2.8351662 -2.559458
0.16790551 2.8325961 -2.5456934
0.17785132 2.837815 -2.5357931
0.18887275 2.8358376 -2.5223548
0.20199078 2.8192275 -2.5018275
0.21604908 2.795316 -2.4778857
0.22929841 2.7762239 -2.4564171
0.2401033 2.7741559 -2.4432015
0.25041223 2.775605 -2.4316807
0.26019078 2.781039 -2.4220433
0.26982993 2.7876728 -2.4129491
0.27931255 2.7957137 -2.4044843
0.28783387 2.8117282 -2.399672
0.29631221 2.8286698 -2.3952045
0.30356523 2.8565242 -2.3956304
0.36089328 3.1336906 -2.41712
0.36984983 3.157366 -2.4142375
0.37852868 3.1851461 -2.4129825
0.38838708 3.2013853 -2.4066877
0.39896604 3.2102735 -2.397218
0.40989 3.2155254 -2.3861914
0.42149156 3.2128317 -2.371851
0.43407601 3.1976888 -2.3524103
0.44649762 3.1834838 -2.3334572
0.4584406 3.1744664 -2.3167095
0.47056779 3.1621549 -2.2987008
0.48228136 3.1546166 -2.28269
0.49395335 3.14695 -2.2666867
0.50518322 3.1452043 -2.2530797
0.51612473 3.147661 -2.2411442
0.52686548 3.1533973 -2.2304842
0.53734386 3.1638868 -2.2216408
0.54781079 3.1752856 -2.2130995
0.55832624 3.1865985 -2.2044744
0.56882453 3.1990998 -2.1962476
0.57909524 3.2172935 -2.1900947
0.58971757 3.2295482 -2.1816452
0.60048598 3.2395561 -2.1723113
0.61113763 3.2532885 -2.1642973
0.62188351 3.2660091 -2.1558523
0.63283193 3.2745287 -2.1458361
0.64366162 3.2874191 -2.1373477
0.65451008 3.3013256 -2.1291602
0.66544908 3.3140247 -2.1204839
0.67657775 3.3214276 -2.1099031
0.68785173 3.3237584 -2.0975409
0.69910437 3.3270214 -2.0855
0.71037346 3.329582 -2.0732164
0.72167259 3.3303354 -2.0603237
0.73298788 3.3293173 -2.0468488
0.74430108 3.3269784 -2.0329564
0.75559586 3.3240354 -2.0188932
0.76688069 3.3186529 -2.004066
0.7781381 3.3107426 -1.9884675
0.78934878 3.300832 -1.9722871
0.80049849 3.2897704 -1.9558114
0.8115859 3.2800696 -1.9398408
0.82263529 3.2745025 -1.9252288
0.83368611 3.2742956 -1.9123192
0.84474504 3.2762377 -1.9000833
0.85581899 3.2796309 -1.8882915
0.86690784 3.2837579 -1.8767155
0.87794554 3.2844832 -1.8641175
0.88891393 3.2821209 -1.8506186
0.89969611 3.2723725 -1.8349875
0.91033489 3.2591674 -1.8184243
0.92095226 3.2479765 -1.8025266
0.93137503 3.2323701 -1.7854508
0.94179177 3.2193153 -1.7691934
0.95229006 3.2108514 -1.754301
0.9625392 3.1969707 -1.7379756
0.97283256 3.1862462 -1.7226027
0.98309714 3.1763523 -1.707527
0.99334335 3.1673882 -1.6927683
1.0036235 3.1603501 -1.6785827
1.0137784 3.1516511 -1.6640145
1.0242367 3.1499922 -1.6513318
1.0349288 3.1531174 -1.6398985
1.0453441 3.1511815 -1.627178
1.0550413 3.1371582 -1.6114489
1.0644127 3.1190012 -1.5947841
1.0731993 3.0930231 -1.576313
1.0825242 3.0774271 -1.5605167
1.0923926 3.0711944 -1.5470655
1.1025401 3.0695674 -1.5347543
1.1137006 3.0823166 -1.5258361
1.125414 3.1018717 -1.5184395
1.1365792 3.1132085 -1.5090673
1.1471354 3.1162879 -1.4977772
1.1583148 3.1270134 -1.488194
1.3042595 3.2405255 -1.3546587
1.316138 3.2532184 -1.3448881
1.3289553 3.2736108 -1.3364748
1.3416712 3.2924507 -1.3276856
1.3532155 3.3009374 -1.3169663
1.3641706 3.3043969 -1.3053337
1.3740138 3.2989271 -1.2921542
1.3829367 3.2865102 -1.2778357
1.3910279 3.2681954 -1.2626092
1.3986983 3.2474096 -1.2470858
1.4058335 3.2234209 -1.2311661
1.4146788 3.2128565 -1.2175269
1.4246714 3.210994 -1.2053211
1.4351828 3.2129533 -1.193727
1.4467239 3.222122 -1.1832283
1.4588203 3.2348993 -1.1732315
1.4709393 3.2475131 -1.1631565
1.4823842 3.2553251 -1.1523384
1.4946932 3.2686565 -1.1422708
1.5075283 3.2850773 -1.1325738
1.5212734 3.306905 -1.1235383
1.5352817 3.3298423 -1.1145494
1.5494413 3.3531473 -1.1055017
1.5633492 3.3743408 -1.0960755
1.576534 3.3906653 -1.0859416
1.5888047 3.4011776 -1.075022
1.6000255 3.4053094 -1.0632943
1.6111608 3.4089043 -1.0514952
1.6226056 3.4142444 -1.0398912
1.6341593 3.4201295 -1.0283341
1.6456156 3.4253876 -1.0166907
1.6570542 3.4304821 -1.0050156
1.6684506 3.4352829 -0.99329686
1.6795034 3.4381812 -0.98137212
1.6899272 3.4377253 -0.96911186
1.7000277 3.4356377 -0.95670891
1.7097706 3.4317977 -0.94416445
1.7189546 3.4252307 -0.93140256
1.7263684 3.4098728 -0.91790318
1.7327995 3.3899734 -0.90410185
1.7392894 3.370857 -0.89048129
1.7462091 3.3543222 -0.87718177
1.7538719 3.3418071 -0.86429697
1.7624778 3.3341477 -0.85185981
1.7716763 3.3295243 -0.83969855
1.7816397 3.3286507 -0.82784092
1.7908555 3.3243582 -0.81576514
1.798979 3.3151581 -0.80339867
1.8067554 3.3046048 -0.79100525
1.8150891 3.2968304 -0.77884781
1.8255755 3.2989051 -0.76731956
1.8372644 3.3063252 -0.75609314
1.8511932 3.3234975 -0.74536395
1.8658231 3.3434441 -0.73470217
1.8793578 3.3583395 -0.72370696
1.891186 3.36571 -0.71230304
1.9018894 3.3682277 -0.70066333
1.9118552 3.3676484 -0.68889648
1.9217409 3.366791 -0.67713428
1.9318875 3.367069 -0.66542959
1.9420693 3.3675282 -0.65374207
1.951025 3.3630583 -0.64191198
1.9599129 3.3584354 -0.63011235
1.9688935 3.3543026 -0.61836076
1.9849093 3.3780487 -0.60729599
2.0009298 3.4014566 -0.59611797
2.0157013 3.419667 -0.58473969
2.0304017 3.4373457 -0.57327461
2.0455651 3.4565437 -0.56175464
2.061245 3.4774277 -0.5501703
2.0737062 3.485925 -0.53838897
2.0834799 3.4843132 -0.52651691
2.0917525 3.477216 -0.51464552
2.1012311 3.4746916 -0.50282687
0.0017817616 2.9133308 -2.7885373
0.015137911 2.9013474 -2.7691216
0.026180625 2.9015353 -2.7563338
0.037195981 2.901808 -2.7436056
0.049921989 2.8924353 -2.7257674
0.064904392 2.8698847 -2.7010422
0.079431355 2.8492053 -2.6774521
0.093744338 2.8290699 -2.6542866
0.10631704 2.8185866 -2.6362679
0.11834216 2.8110058 -2.6198246
0.12966114 2.80744 -2.6055017
0.14017081 2.8087323 -2.5936913
0.15044028 2.8115113 -2.5826416
0.1615079 2.8091552 -2.5690022
0.17222965 2.8089063 -2.5564468
0.18349874 2.8049128 -2.5420432
0.19436783 2.8034112 -2.5289114
0.20526356 2.8015873 -2.5156441
0.21662325 2.7963436 -2.500731
0.22816086 2.7895424 -2.4851074
0.23986119 2.7812068 -2.4687979
0.25069827 2.7788866 -2.4554384
0.26084065 2.7816565 -2.4445333
0.27091008 2.7850063 -2.4339008
0.2811743 2.7868583 -2.4225574
0.29101199 2.7921283 -2.4128151
0.29995078 2.8049195 -2.4065514
0.30836239 2.8225925 -2.4024796
0.31716612 2.837568 -2.3970797
0.32625699 2.8505857 -2.3907125
0.33478802 2.8691232 -2.3867817
0.37271005 3.1364205 -2.4291043
0.38184887 3.1588089 -2.4257116
0.39140883 3.1776698 -2.4206882
0.40105355 3.1965039 -2.4155574
0.41135922 3.2086003 -2.4074786
0.42205763 3.216563 -2.3976059
0.43336359 3.2173488 -2.3847055
0.44571215 3.2047169 -2.3662524
0.45841664 3.1863854 -2.345542
0.47030365 3.1777699 -2.3289251
0.48183772 3.1733458 -2.314074
0.49355981 3.1656587 -2.2979493
0.50516576 3.1589587 -2.2822788
0.51655501 3.1549513 -2.2677312
0.52777219 3.1532342 -2.2541242
0.53890085 3.1526711 -2.240994
0.54979295 3.1560643 -2.2294178
0.56045467 3.1638529 -2.219532
0.57106543 3.1731532 -2.2101936
0.58188921 3.1787488 -2.19941
0.5926466 3.1861184 -2.1892767
0.60312295 3.2004979 -2.1817377
0.61372709 3.2131894 -2.1735044
0.62444687 3.2241781 -2.1645851
0.63506895 3.2390254 -2.1570282
0.64587247 3.2502782 -2.1480973
0.65649885 3.2685831 -2.1416531
0.66713035 3.2894013 -2.1360159
0.67802787 3.303498 -2.1278954
0.68907291 3.3137662 -2.1183653
0.70025086 3.3195698 -2.1072364
0.71152055 3.3213475 -2.0946984
0.72277737 3.3236625 -2.0823498
0.73407894 3.3226898 -2.0688858
0.74537241 3.3209097 -2.0551698
0.75664794 3.3187578 -2.0413547
0.76791626 3.3142378 -2.026782
0.77915716 3.3080523 -2.0117025
0.79035962 3.2996647 -1.9959557
0.80150634 3.2866728 -1.9787847
0.8125816 3.2750003 -1.9621234
0.82360357 3.2662513 -1.9464694
0.83459705 3.2608254 -1.9319237
0.84559506 3.2596319 -1.9187413
0.85662532 3.2624133 -1.9068069
0.8676967 3.2678587 -1.8956864
0.87876618 3.2723997 -1.8842753
0.8897633 3.2728102 -1.8716128
0.90070611 3.2712448 -1.8583745
0.91147143 3.2632754 -1.8432714
0.92214102 3.253628 -1.8277371
0.93261051 3.2391627 -1.8108774
0.94299769 3.2246635 -1.7941027
0.95330966 3.2103422 -1.7774729
0.96348494 3.1944788 -1.7605034
0.97356051 3.1783001 -1.7435479
0.98340756 3.1587431 -1.7257659
0.99363923 3.1503804 -1.7111567
1.003793 3.141443 -1.696452
1.0736235 3.0830939 -1.5963327
1.0833619 3.0742314 -1.5821357
1.0929503 3.0639298 -1.5676477
1.1032201 3.064265 -1.5558069
1.113546 3.0655124 -1.5441962
1.1244744 3.074939 -1.5345292
1.1356282 3.0868747 -1.5254117
1.1462964 3.0921032 -1.51469
1.155876 3.083792 -1.500856
1.3257825 3.2362936 -1.3524868
1.3384867 3.2556922 -1.3439791
1.3517116 3.2787654 -1.3360536
1.3650393 3.3019068 -1.3280306
1.3772173 3.3151143 -1.3181325
1.3877523 3.3150523 -1.3058548
1.3968863 3.3042858 -1.2917454
1.4049559 3.285917 -1.2764159
1.4125465 3.2646925 -1.2607198
1.4187728 3.2342694 -1.2436364
1.4262738 3.2141001 -1.2283859
1.4354506 3.2065313 -1.2152607
1.4457681 3.2072332 -1.2034829
1.4566834 3.2120912 -1.192354
1.4690659 3.226794 -1.1827018
1.4806087 3.2355373 -1.172099
1.4916449 3.2407706 -1.1609509
1.5037596 3.2528951 -1.1507765
1.5163519 3.2677863 -1.1409407
1.5295024 3.2858312 -1.1314758
1.5437272 3.3100965 -1.1227726
1.557755 3.3325617 -1.1137161
1.571902 3.3552043 -1.104579
1.5858773 3.3762915 -1.0951381
1.5990858 3.3923905 -1.0849762
1.6113371 3.4025939 -1.0740216
1.6229308 3.4088418 -1.0625526
1.634419 3.4143999 -1.0509834
1.6460571 3.4207199 -1.0394862
1.6575233 3.4259994 -1.0278525
1.6689627 3.4310668 -1.0161815
1.6803002 3.4355261 -1.0044322
1.6914561 3.4389756 -0.99256778
1.7024769 3.441695 -0.98062432
1.7134378 3.4440992 -0.96864861
1.7240456 3.4446948 -0.95649874
1.7340274 3.442157 -0.94406402
1.7430822 3.4350793 -0.93123984
1.7494962 3.4151065 -0.91731739
1.7552955 3.3926013 -0.90329146
1.761325 3.3717477 -0.88953209
1.7683272 3.3560627 -0.87631226
1.7756243 3.3421595 -0.86332566
1.7843249 3.335202 -0.85095197
1.7931447 3.3289902 -0.83868122
1.8026316 3.3260314 -0.82668602
1.8111514 3.3187649 -0.81442302
1.8191427 3.3093007 -0.8020643
1.8277962 3.3030345 -0.78996927
1.8384284 3.3057086 -0.77846336
1.8499829 3.3124278 -0.76719272
1.8630234 3.3255308 -0.7562573
1.8770328 3.3426087 -0.74548024
1.8902689 3.3561161 -0.73444784
1.902546 3.3653629 -0.72315395
1.913257 3.367923 -0.7115196
1.923794 3.3697598 -0.69985336
1.9338497 3.3696249 -0.68810993
1.9432644 3.3669212 -0.67628121
1.9527813 3.3647211 -0.6644966
1.9619443 3.361182 -0.65269077
1.9709296 3.3570392 -0.64089644
1.9801463 3.3539202 -0.62916404
1.9936981 3.3678429 -0.6178987
2.0102315 3.3931329 -0.60684091
2.0257902 3.4142988 -0.59558362
2.0401254 3.4304965 -0.58414239
2.0550511 3.4487045 -0.57266486
2.0700474 3.4669263 -0.56110942
2.0858755 3.4879949 -0.54950678
2.0968556 3.4908674 -0.53765994
2.1058006 3.4862754 -0.52576721
2.1142979 3.4801652 -0.51390457
0.018565118 2.8865941 -2.7843127
0.030085325 2.88399 -2.7700379
0.040020645 2.8899944 -2.7604401
0.051204681 2.8891037 -2.7471201
0.06410414 2.8783529 -2.7285593
0.079093397 2.8551323 -2.7034628
0.092906058 2.8380229 -2.681747
0.10604823 2.8242981 -2.6619256
0.11741507 2.8208034 -2.647536
0.12989593 2.810271 -2.6295347
0.1417557 2.8031976 -2.613394
0.15362161 2.7957718 -2.5971305
0.1649611 2.7914155 -2.5824897
0.17522335 2.7939041 -2.5713549
0.18504101 2.7993662 -2.5617161
0.19610494 2.7964642 -2.5478742
0.20742488 2.7916005 -2.5330894
0.21858472 2.7876008 -2.5187752
0.22910118 2.7879832 -2.5066514
0.23969078 2.7877553 -2.4942417
0.25013971 2.7884762 -2.4823084
0.26060039 2.7890441 -2.4703104
0.27113456 2.7889698 -2.4580159
0.28135812 2.7912524 -2.4468584
0.29171962 2.7924192 -2.4351733
0.30222714 2.7923315 -2.4229054
0.31146929 2.8027942 -2.4155812
0.32029355 2.81721 -2.4100442
0.32903337 2.8329103 -2.4050276
0.33808151 2.8464472 -2.3989406
0.34722942 2.8595893 -2.3926077
0.35516444 2.8846915 -2.3916206
0.38527563 3.1312277 -2.4376302
0.39472282 3.1506422 -2.4330115
0.40449044 3.1673906 -2.4271426
0.41388598 3.1893156 -2.4234095
0.42384464 3.2056458 -2.4171805
0.43436113 3.2159207 -2.4083104
0.44547004 3.2191126 -2.396421
0.45754087 3.2096331 -2.3792431
0.47011247 3.1924803 -2.3589587
0.4822683 3.1798141 -2.3406339
0.49354592 3.1789162 -2.3272026
0.50504696 3.17435 -2.3123045
0.51673698 3.1662309 -2.2960179
0.52840841 3.1575391 -2.2795644
0.53969979 3.1544201 -2.2653866
0.55090171 3.1524012 -2.2516747
0.56221187 3.1479223 -2.2370279
0.57319355 3.149235 -2.2246683
0.58386195 3.1569159 -2.2147679
0.59462899 3.1629994 -2.2042274
0.60527772 3.1722229 -2.1948574
0.61588818 3.1831934 -2.1861067
0.62663788 3.1916201 -2.176357
0.63722205 3.2054689 -2.1685832
0.64799732 3.2152636 -2.1592536
0.65861225 3.2313912 -2.1521935
0.66920257 3.2507212 -2.1462159
0.6797384 3.2753046 -2.1420288
0.69053692 3.29333 -2.1353793
0.7015295 3.3057511 -2.1266603
0.71266621 3.3130362 -2.1160843
0.72391623 3.3147662 -2.1035495
0.73518443 3.3148596 -2.0904551
0.74646604 3.3127067 -2.0766063
0.75771928 3.3111417 -2.062984
0.76895964 3.3084338 -2.0490007
0.78018421 3.3032944 -2.0342364
0.79137242 3.2974374 -2.0192783
0.8025189 3.2905376 -2.0040257
0.81360763 3.279927 -1.98762
0.82463682 3.2700822 -1.9715354
0.835621 3.2621038 -1.9561173
0.84656227 3.2548902 -1.9410006
0.85751921 3.252558 -1.9274709
0.8684727 3.2515385 -1.9143771
0.87948632 3.2548964 -1.9026531
0.89051265 3.2586935 -1.8910587
0.90147537 3.2593954 -1.87852
0.91235137 3.2569625 -1.8650517
0.92310846 3.2510412 -1.8505746
0.93379152 3.2439921 -1.8358126
0.94410414 3.2268088 -1.8181494
0.95439458 3.2117159 -1.8011994
0.96458286 3.1961291 -1.784206
0.97450358 3.1759174 -1.766003
0.98438978 3.1574728 -1.7484215
0.99421394 3.1398804 -1.7311926
1.0823753 3.0430734 -1.5966648
1.0925149 3.0420053 -1.5845031
1.1028908 3.0445526 -1.5732551
1.1136278 3.0520842 -1.5632259
1.1242831 3.0582016 -1.5528265
1.1352228 3.0677879 -1.5432371
1.1461098 3.076287 -1.5333511
1.1558723 3.070657 -1.5201284
1.1642349 3.0487974 -1.5031984
1.1735536 3.0393307 -1.4892306
1.18257 3.0270746 -1.4746976
1.1920545 3.0207174 -1.4615592
1.2019334 3.0190237 -1.4494954
1.2124517 3.0242178 -1.4389522
1.2233083 3.0327356 -1.4291079
1.2342486 3.041805 -1.4193478
1.2453232 3.0518835 -1.4097626
1.2563741 3.0613949 -1.400019
1.2671524 3.0680554 -1.3896554
1.2779207 3.0744445 -1.3792137
1.3617043 3.2652953 -1.3443921
1.3752778 3.290241 -1.336786
1.3883713 3.3106267 -1.3282394
1.4003673 3.3219445 -1.3179891
1.4100943 3.3158123 -1.3046424
1.4189495 3.3034956 -1.2902772
1.426451 3.2817829 -1.2743981
1.4327717 3.252372 -1.2573633
1.4391696 3.2245319 -1.2407548
1.4467365 3.2057841 -1.225775
1.4559822 3.1991966 -1.2128394
1.4664509 3.2011378 -1.2012839
1.4784892 3.213526 -1.1913362
1.4894934 3.2188489 -1.1802692
1.5000656 3.2212994 -1.168761
1.5120006 3.2324193 -1.1585163
1.5252738 3.2516859 -1.1493921
1.5388651 3.2724507 -1.1403906
1.5527093 3.2942579 -1.1314371
1.5664349 3.3148282 -1.1222153
1.5808024 3.3387296 -1.113341
1.5947776 3.3597715 -1.1039832
1.6083841 3.3782017 -1.0941961
1.6213038 3.3923051 -1.0837857
1.6340051 3.4048855 -1.0731289
1.646044 3.4135292 -1.061949
1.6578479 3.4207313 -1.0505686
1.6692932 3.4258711 -1.0389278
1.6807215 3.4308579 -1.0272565
1.6920342 3.4351757 -1.0154994
1.7031883 3.4386189 -1.0036397
1.7143335 3.4419959 -0.99176854
1.7255923 3.4459355 -0.97995019
1.7366917 3.4490364 -0.96804166
1.7476139 3.4512374 -0.95604342
1.757458 3.4481022 -0.943546
1.7662787 3.4400723 -0.93063068
1.7713326 3.413995 -0.91616762
1.775759 3.3855093 -0.90164346
1.7824879 3.3686068 -0.88824654
1.7892637 3.3523247 -0.87499917
1.7964468 3.3383195 -0.86202633
1.8052754 3.3322265 -0.84973884
1.8143243 3.3273075 -0.83758116
1.823157 3.3215587 -0.82540214
1.8324761 3.3181441 -0.81342447
1.8415608 3.3138072 -0.80141604
1.8518138 3.3147209 -0.7897743
1.8630232 3.3198187 -0.77839452
1.8750299 3.3283002 -0.76719844
1.8885263 3.3430212 -0.75631952
1.9014263 3.3549979 -0.74523276
1.913445 3.3631122 -0.73390245
1.9242606 3.3661349 -0.72229856
1.934515 3.3668392 -0.71058601
1.9448762 3.3680098 -0.69890249
1.9542724 3.3653052 -0.68706816
1.9636886 3.3627689 -0.67526627
1.9726416 3.3584783 -0.66342694
1.9816285 3.3544366 -0.65162969
1.9913832 3.3535011 -0.63995999
2.0038502 3.3631256 -0.62860388
2.0191965 3.3836896 -0.61749214
2.0348411 3.4050953 -0.60630959
2.0501947 3.4250968 -0.59500384
2.0656381 3.4451525 -0.58361197
2.0794835 3.4589899 -0.57203555
2.0943398 3.4763768 -0.56044948
2.1100209 3.4965503 -0.54881954
2.1201663 3.4963443 -0.53693461
2.1285448 3.4898121 -0.52502704
0.045735538 2.8621814 -2.7684369
0.055985034 2.866143 -2.7578101
0.066728055 2.8673403 -2.7456834
0.078879535 2.8603561 -2.7291789
0.091721296 2.8490312 -2.710418
0.10471076 2.8363955 -2.6910462
0.11700857 2.827472 -2.6737227
0.12857437 2.8226883 -2.658637
0.13996285 2.8187792 -2.6440501
0.15236658 2.8082058 -2.6260512
0.16483003 2.7968099 -2.6077077
0.17656636 2.7897241 -2.5916531
0.18737483 2.7885158 -2.5786457
0.19711876 2.7944272 -2.5692606
0.20774168 2.7943752 -2.5568564
0.21912575 2.7888625 -2.5417385
0.23064011 2.7821209 -2.526058
0.24134487 2.7809637 -2.5131886
0.25118142 2.7861516 -2.5034533
0.26052761 2.7951815 -2.4955745
0.27088028 2.7966645 -2.4839985
0.28113562 2.7988827 -2.4727821
0.29176927 2.7980359 -2.4600992
0.30215496 2.7991002 -2.4483447
0.31280321 2.7978933 -2.4355249
0.32255316 2.8042729 -2.4262891
0.33156985 2.8172967 -2.4201298
0.34109282 2.8262451 -2.4120176
0.3502956 2.8384588 -2.4053705
0.36007699 2.8456767 -2.396378
0.36934099 2.8581436 -2.3897448
0.39796641 3.1242826 -2.4453549
0.40717977 3.1466467 -2.4420898
0.41704184 3.1625955 -2.4359231
0.42679718 3.1806443 -2.4305828
0.43665367 3.198406 -2.4250283
0.44691005 3.2120187 -2.4176207
0.45789042 3.2167737 -2.4064069
0.46957207 3.2120669 -2.3912115
0.48177019 3.1995099 -2.3727889
0.49463835 3.1759784 -2.3499157
0.50559092 3.1797206 -2.3383961
0.51727378 3.1719553 -2.3221765
0.52953357 3.1537974 -2.3018093
0.54082096 3.1506336 -2.2875898
0.55201817 3.1485846 -2.2738481
0.56353676 3.1400402 -2.2575598
0.57467115 3.1380131 -2.2438989
0.5856865 3.1379945 -2.2310476
0.59639674 3.144397 -2.2206998
0.60719734 3.1491492 -2.2096949
0.6177789 3.1595671 -2.2008395
0.62833387 3.1717031 -2.1925898
0.63903052 3.1811969 -2.1832914
0.64979255 3.1897542 -2.1736035
0.66049457 3.2012269 -2.1649604
0.67121732 3.2135193 -2.1565676
0.68186903 3.2304142 -2.149796
0.69240904 3.2550952 -2.1457586
0.7030713 3.2791131 -2.1413567
0.71399224 3.2948167 -2.133873
0.72508919 3.30354 -2.1238503
0.73629129 3.3067305 -2.1118546
0.7476052 3.3001702 -2.0964684
0.75884837 3.2966082 -2.0821674
0.77006668 3.2922261 -2.0676208
0.7812531 3.2873509 -2.0529468
0.79240549 3.2808754 -2.0377772
0.80351609 3.2764685 -2.0233479
0.814587 3.2703397 -2.0083895
0.82563096 3.266813 -1.9943322
0.83663398 3.2618916 -1.9798566
0.84761441 3.2582414 -1.9658322
0.85854143 3.2527888 -1.9512676
0.86944962 3.2486203 -1.9371539
0.88037699 3.2473257 -1.9239793
0.89132667 3.2480414 -1.9114507
0.90227956 3.249285 -1.8990947
0.91307408 3.2444651 -1.8848962
0.92382085 3.2391932 -1.870602
0.93458325 3.2356927 -1.8568819
0.94519418 3.2283928 -1.8420682
0.95561945 3.2170899 -1.8261324
0.9657501 3.1996138 -1.8084759
0.97578442 3.1821125 -1.7909232
0.98543519 3.1577122 -1.7715112
0.99511051 3.1367605 -1.7532235
1.0611056 3.0126984 -1.6347866
1.0706927 3.0035284 -1.6205415
1.0806354 3.0006239 -1.6079762
1.0909657 3.0038011 -1.596993
1.1016762 3.0123446 -1.5873607
1.1125612 3.0228956 -1.578196
1.1236522 3.0356872 -1.5695407
1.1344845 3.0444973 -1.5598555
1.145239 3.0519521 -1.5498077
1.1551229 3.0484817 -1.5371221
1.1644297 3.038482 -1.5229261
1.1730562 3.0212853 -1.507117
1.1816326 3.0045516 -1.4915211
1.1913947 3.0017979 -1.4792173
1.2011975 2.9997346 -1.4670968
1.2113975 3.0020311 -1.4559708
1.2215496 3.0038426 -1.4447389
1.2316549 3.005214 -1.4334137
1.2423351 3.0122244 -1.4233043
1.2529219 3.0181415 -1.4129381
1.2642384 3.0307019 -1.4039421
1.2754889 3.0422313 -1.3946788
1.2861406 3.0480392 -1.3842001
1.2971692 3.0570061 -1.3743384
1.3092182 3.0744655 -1.3661267
1.3846612 3.2723958 -1.3443383
1.3986548 3.2996709 -1.3371408
1.4110357 3.3139279 -1.3274713
1.4224594 3.3206923 -1.316412
1.4324348 3.3167527 -1.303463
1.4404187 3.2987382 -1.2881298
1.4463036 3.2665651 -1.2705097
1.4527583 3.2394421 -1.2539144
1.4596491 3.2162206 -1.2381144
1.4673245 3.199065 -1.2234282
1.4764664 3.1922286 -1.2104821
1.4871199 3.195545 -1.1991687
1.4982214 3.2017224 -1.1882892
1.5088451 3.2047598 -1.1769168
1.5205221 3.2143729 -1.1665152
1.5339463 3.2345722 -1.1576161
1.5476267 3.2558482 -1.1487777
1.5614917 3.277724 -1.1399254
1.5754802 3.2998178 -1.1310012
1.5894115 3.3210614 -1.12186
1.6033812 3.3420432 -1.1125865
1.6169984 3.3605468 -1.1028945
1.6304014 3.3774402 -1.0929149
1.6434152 3.391814 -1.0825465
1.6567606 3.4077203 -1.0723034
1.6690627 3.4176433 -1.0612764
1.6807947 3.4243333 -1.0498333
1.6921897 3.4291422 -1.0381539
1.7035127 3.4335206 -1.0264146
1.7147586 3.4374568 -1.0146177
1.7260053 3.4413669 -1.0028107
1.737277 3.4453728 -0.99100661
1.7484143 3.4486725 -0.97912347
1.7596325 3.4523571 -0.96727431
1.7704999 3.4543002 -0.95525193
1.7801796 3.4505017 -0.94269478
1.7880638 3.4382308 -0.9293983
1.7912657 3.4040596 -0.91423869
1.7966129 3.3807142 -0.90019751
1.8026768 3.3612254 -0.88661021
1.809595 3.3461092 -0.87348878
1.8174473 3.3355978 -0.86081773
1.8264605 3.3305757 -0.84862876
1.8352498 3.3247006 -0.83641541
1.8452153 3.324188 -0.82462364
1.8558831 3.3268082 -0.81306058
1.8656255 3.3254101 -0.80123287
1.8763872 3.3284652 -0.78970575
1.8876365 3.3335869 -0.77830064
1.8998581 3.3427613 -0.76711738
1.9120532 3.3517029 -0.75588727
1.9240516 3.3597152 -0.74457538
1.9349853 3.3632548 -0.73300976
1.9445009 3.3610027 -0.72116089
1.9546765 3.3614967 -0.70946062
1.9646819 3.3613431 -0.69774252
1.9741038 3.3589203 -0.68594587
1.9828891 3.3540747 -0.6740818
1.9922199 3.3514822 -0.66233414
2.0018358 3.3500741 -0.65065068
2.0137904 3.3577001 -0.63926131
2.0279384 3.3735907 -0.62807691
2.0431261 3.3931868 -0.61691976
2.0601439 3.4193618 -0.60582817
2.0764689 3.4425876 -0.59455848
2.0914571 3.4605615 -0.58309132
2.1057181 3.4756358 -0.57150233
2.1220164 3.4979074 -0.55994475
2.1337686 3.5035074 -0.5481137
0.073331892 2.8336227 -2.7503369
0.083686888 2.8365366 -2.7392395
0.095015526 2.8337448 -2.7250664
0.10644853 2.8301675 -2.7105045
0.11741889 2.8292053 -2.6973717
0.12837362 2.8282301 -2.6842525
0.13922697 2.8277795 -2.6714299
0.15038019 2.8253257 -2.6575766
0.1626097 2.8157418 -2.6400435
0.17508751 2.8041136 -2.6215258
0.18720239 2.7944276 -2.6040921
0.19868737 2.7886083 -2.5887074
0.20924449 2.7889316 -2.5764937
0.21961927 2.7904675 -2.5649049
0.23069686 2.7869141 -2.550766
0.24231124 2.7792013 -2.5345869
0.25305414 2.7776124 -2.5215065
0.26302993 2.7817147 -2.5112557
0.27201968 2.7935512 -2.5047846
0.28183001 2.7992656 -2.4952745
0.29171556 2.8045104 -2.4855175
0.30229524 2.8041365 -2.4730406
0.31287885 2.8036115 -2.4605076
0.32330838 2.8042881 -2.4485631
0.33354434 2.8065979 -2.4373994
0.34285909 2.8172262 -2.4301379
0.35258746 2.8244193 -2.4212263
0.36278075 2.8274429 -2.4103551
0.37276158 2.8325598 -2.4004436
0.38227001 2.8425148 -2.3927271
0.39088583 2.8619716 -2.3892822
0.41073948 3.1159117 -2.4524112
0.41914254 3.1481264 -2.4535503
0.42933372 3.1605561 -2.4458785
0.43963403 3.1722476 -2.4378278
0.44981706 3.1860373 -2.4306278
0.46016264 3.1984179 -2.4227586
0.47097519 3.2050574 -2.4123936
0.48229605 3.2047517 -2.3990746
0.49439496 3.1927488 -2.3808718
0.5068872 3.1736028 -2.3597822
0.51827574 3.170315 -2.3453705
0.53018594 3.1578858 -2.3272433
0.54245257 3.1379945 -2.3061638
0.55416584 3.1260946 -2.2884464
0.56511635 3.1272838 -2.2760677
0.57630491 3.1236088 -2.2617579
0.5874778 3.1196196 -2.2473598
0.59828913 3.1228926 -2.2358518
0.60892373 3.1303747 -2.2259805
0.61957252 3.1381171 -2.2161813
0.63025159 3.1457393 -2.2063057
0.64078546 3.1581666 -2.1982327
0.65129167 3.1729138 -2.1909804
0.66201031 3.1826746 -2.1817858
0.672782 3.1918094 -2.1723163
0.68352884 3.2031806 -2.163636
0.69423288 3.2182729 -2.15627
0.70496696 3.2348764 -2.1493826
0.71558845 3.261411 -2.1460021
0.72648156 3.2781894 -2.1389885
0.73752588 3.2888515 -2.1297197
0.74872613 3.2888744 -2.1166534
0.75994021 3.2857859 -2.1025131
0.77116758 3.2759774 -2.0860736
0.8264854 3.2406013 -2.0094767
0.83748043 3.2419541 -1.9971017
0.84848696 3.2448938 -1.9852524
0.85950273 3.2483876 -1.9735808
0.87050545 3.2507646 -1.9615449
0.88145989 3.2505157 -1.9486728
0.89229149 3.2449372 -1.9341329
0.90316623 3.242944 -1.9207612
0.91404885 3.24212 -1.9077774
0.92472762 3.2345254 -1.8927307
0.93528378 3.2244685 -1.8769903
0.94591433 3.2185514 -1.8625699
0.95637435 3.2089021 -1.8470803
0.96687222 3.2018254 -1.8324207
0.97704256 3.1876433 -1.8157285
0.98705959 3.1717031 -1.7986181
0.99657744 3.1464989 -1.7789416
1.051477 3.0045984 -1.6666293
1.061023 2.9945171 -1.6520598
1.0705078 2.9843962 -1.6375481
1.0801213 2.9771307 -1.6238568
1.0898869 2.9727671 -1.6109741
1.1000943 2.9751289 -1.5998614
1.1110973 2.9884284 -1.5915374
1.1220225 3.0000079 -1.5827194
1.133376 3.0165627 -1.5750926
1.1442825 3.0266831 -1.5658007
1.1545941 3.0291154 -1.5545903
1.1643779 3.0252955 -1.5418712
1.1737133 3.0166399 -1.5280319
1.1829065 3.0069649 -1.5140123
1.1914893 2.991226 -1.4986442
1.2009878 2.9861519 -1.4858322
1.2110959 2.9877861 -1.4745879
1.2215797 2.9932711 -1.4642141
1.2320309 2.9982893 -1.4537196
1.2420603 2.9990938 -1.4422852
1.2525687 3.004513 -1.4318604
1.2632077 3.0110147 -1.4216511
1.2740601 3.0192854 -1.4117935
1.2847797 3.0261295 -1.4016063
1.2952435 3.0305622 -1.3908978
1.3061142 3.0383937 -1.3808699
1.3181856 3.0560954 -1.3727949
1.3302886 3.0734785 -1.3645746
1.4077636 3.2803266 -1.3444357
1.4213034 3.3032835 -1.3364323
1.432966 3.3118999 -1.3257465
1.4450328 3.32321 -1.3155046
1.4546371 3.31689 -1.3021452
1.4612926 3.2903979 -1.2853725
1.4739935 3.2359612 -1.2520455
1.4809995 3.2144182 -1.2365456
1.4886476 3.1977737 -1.2219609
1.4977098 3.1907756 -1.209004
1.507678 3.1897919 -1.1970333
1.5181656 3.1921475 -1.1855918
1.5292363 3.1981018 -1.174692
1.5422831 3.2159698 -1.1655351
1.5556407 3.2352898 -1.1565082
1.5690924 3.2547171 -1.1474082
1.5832777 3.2779849 -1.1387572
1.59742 3.3004692 -1.12989
1.6117513 3.323519 -1.1209947
1.6250608 3.3403113 -1.111165
1.6386977 3.358566 -1.1014506
1.6523597 3.3765748 -1.0916229
1.6661024 3.3946469 -1.0817225
1.6791558 3.4086587 -1.0712472
1.6917582 3.4200165 -1.060396
1.70366 3.4275057 -1.0490482
1.7149782 3.4318655 -1.0373178
1.7262874 3.4361374 -1.0255681
1.7375228 3.4399989 -1.0137651
1.7486746 3.443413 -1.0019075
1.7598108 3.4467299 -0.9900353
1.7711574 3.4510596 -0.97826171
1.7825634 3.4556401 -0.96650356
1.7932453 3.4567096 -0.95439792
1.8022364 3.4498017 -0.94155443
1.8077413 3.4267428 -0.92729187
1.8124852 3.4006732 -0.91289413
1.8170171 3.3742049 -0.89860833
1.8231366 3.3555338 -0.88511932
1.8297861 3.3396661 -0.87196428
1.8380797 3.3314874 -0.85950327
1.8467046 3.3249772 -0.84722257
1.8570446 3.3261411 -0.83554792
1.8692508 3.3354161 -0.8244518
1.8796288 3.3367164 -0.81277895
1.8892719 3.3349116 -0.80090898
1.9000171 3.3378298 -0.78935766
1.911266 3.3428428 -0.77793038
1.9231105 3.3502767 -0.76663029
1.9345019 3.3557637 -0.75519753
1.9452261 3.3584836 -0.74360335
1.9558703 3.3608768 -0.73199153
1.9654058 3.3588417 -0.72016853
1.9755478 3.3592851 -0.70848036
1.9849421 3.3568256 -0.69667828
1.9936826 3.3519013 -0.68480164
2.0025675 3.3476574 -0.67298776
2.0122962 3.3467572 -0.6613251
2.0242956 3.3545415 -0.6499635
2.0374453 3.3665769 -0.63870394
2.0516438 3.3823812 -0.62750107
2.0685339 3.4079621 -0.61647862
2.0861342 3.4357951 -0.60539252
2.1020398 3.4570425 -0.59404683
2.1180592 3.4784138 -0.58261013
2.1340163 3.4992721 -0.57107204
2.1474147 3.5107191 -0.55932212
0.081721902 2.7896535 -2.7489944
0.090182245 2.8028967 -2.7436812
0.098920286 2.8148415 -2.7375953
0.10901374 2.8189876 -2.727232
0.11976993 2.8191674 -2.7147241
0.13061947 2.8187001 -2.701884
0.14055455 2.8238699 -2.6920593
0.15095121 2.8261912 -2.6807115
0.16130948 2.8287575 -2.6694932
0.17298794 2.8226292 -2.6537294
0.185444 2.8109906 -2.6351535
0.19785601 2.7991555 -2.6165617
0.2094084 2.7927787 -2.6008594
0.22042859 2.7898457 -2.5869684
0.23119283 2.7885597 -2.573945
0.24231517 2.7845042 -2.5595469
0.25367701 2.7784092 -2.5441644
0.26440692 2.7768033 -2.5310709
0.27451479 2.7798803 -2.5203216
0.28407919 2.7873042 -2.5117085
0.29332328 2.7975357 -2.5044394
0.30271414 2.806886 -2.4966941
0.31316826 2.807543 -2.4847045
0.32404885 2.8044364 -2.4709167
0.33441517 2.8056295 -2.4592147
0.34471676 2.8073547 -2.447772
0.35463911 2.8125613 -2.4379749
0.36483508 2.8153093 -2.4270089
0.37518603 2.81657 -2.4153481
0.38552856 2.8178585 -2.403707
0.39514583 2.8265073 -2.3954551
0.40398285 2.8436806 -2.3910589
0.43134382 3.1467531 -2.4637527
0.44150752 3.1597869 -2.4563768
0.45223963 3.1661761 -2.4460416
0.46284819 3.1744678 -2.4365082
0.47332978 3.1849062 -2.4278643
0.48416576 3.19085 -2.4172542
0.49540883 3.1910179 -2.4041736
0.5075618 3.1770141 -2.3851352
0.52021068 3.1537583 -2.3623223
0.53159308 3.1494458 -2.3475316
0.54301798 3.143801 -2.3322306
0.55522156 3.1232769 -2.3108816
0.56741202 3.1008227 -2.2888813
0.57881284 3.0916517 -2.2723911
0.58990145 3.0878193 -2.2581093
0.60077971 3.0879529 -2.2454431
0.61141855 3.0934236 -2.2348998
0.6215871 3.1109622 -2.229074
0.63193262 3.1257803 -2.2221017
0.6425721 3.1339848 -2.212502
0.65327406 3.1411388 -2.2024662
0.66388637 3.152003 -2.1938167
0.67444587 3.1662366 -2.1863925
0.68507993 3.1797988 -2.1786494
0.69581586 3.1912868 -2.1700706
0.70654809 3.2050903 -2.1622963
0.71741444 3.2145269 -2.1528568
0.72812909 3.2358401 -2.1476963
0.73892564 3.2578938 -2.1426959
0.7499088 3.2714221 -2.1345329
0.76103318 3.2743509 -2.1225445
0.77221268 3.268162 -2.1073427
0.84914064 3.2123272 -1.9981619
0.86024857 3.2281458 -1.9906443
0.87129968 3.2363856 -1.9805756
0.8823933 3.2454345 -1.9707367
0.89339918 3.2487538 -1.9590216
0.90423971 3.2447674 -1.9449766
0.91495997 3.2372983 -1.9298694
0.92574364 3.2338169 -1.9160653
0.93643647 3.2282908 -1.9016613
0.94686306 3.2158082 -1.8851658
0.9572559 3.2044079 -1.8690835
0.96752286 3.1914194 -1.8525999
0.97804809 3.1867588 -1.8386905
0.98839194 3.1786144 -1.8237902
0.99847782 3.1658285 -1.8075879
1.007787 3.1380665 -1.7871215
1.0516477 2.990134 -1.6847768
1.0607719 2.9737127 -1.6684428
1.0702505 2.964257 -1.6541008
1.0802572 2.9636562 -1.6421993
1.0902619 2.9632328 -1.6303616
1.0999472 2.9584692 -1.6173984
1.1100676 2.9601281 -1.6061443
1.121031 2.9730208 -1.5977852
1.1318229 2.9830701 -1.5886443
1.1429589 2.9969699 -1.5804312
1.1537144 3.005595 -1.5708412
1.1639247 3.007436 -1.5595453
1.1739753 3.0074718 -1.5478123
1.1837362 3.0043852 -1.5353397
1.1931152 2.9974096 -1.5219704
1.2023635 2.9895036 -1.5084326
1.2114482 2.980396 -1.4946709
1.2214849 2.9814804 -1.4833164
1.2321358 2.9887059 -1.4733653
1.2427375 2.9952385 -1.463232
1.2529376 2.997782 -1.4521909
1.2633541 3.0023267 -1.4415874
1.2738142 3.0071723 -1.4310374
1.2846215 3.0150044 -1.4211128
1.2949891 3.0187867 -1.4103035
1.3053062 3.0220802 -1.3993845
1.3158765 3.0274613 -1.3888901
1.3275898 3.0421202 -1.3802649
1.3397619 3.0600293 -1.3722252
1.3522949 3.080231 -1.3645562
1.429806 3.2802417 -1.3430514
1.4435186 3.3037875 -1.3351586
1.4558083 3.3166535 -1.3252401
1.4683933 3.3312395 -1.3155706
1.4771978 3.3196867 -1.3012917
1.4833552 3.2907932 -1.2841179
1.4957807 3.2365048 -1.2508483
1.5021782 3.2118318 -1.2348516
1.5097651 3.195462 -1.2203319
1.5186923 3.1879814 -1.2073165
1.5289905 3.189213 -1.1957072
1.5390694 3.1891453 -1.1839056
1.550608 3.1978858 -1.1734401
1.5629425 3.2111609 -1.1636106
1.5756762 3.2264798 -1.1540205
1.5891212 3.2455628 -1.1448991
1.6043272 3.2742293 -1.1370296
1.619288 3.3008649 -1.1287451
1.6333733 3.3220508 -1.1196015
1.6472522 3.3416488 -1.1101511
1.6609194 3.3596914 -1.1004107
1.6748998 3.3790376 -1.0907547
1.6881332 3.3940442 -1.0804727
1.7010775 3.4072526 -1.0699073
1.7144442 3.422395 -1.0595169
1.7263188 3.4296386 -1.048142
1.7375603 3.433584 -1.0363675
1.7487543 3.4372609 -1.024556
1.7599306 3.4408247 -1.0127263
1.7712042 3.4448431 -1.0009395
1.7825553 3.4492037 -0.98918056
1.7940291 3.4541118 -0.97746754
1.8053979 3.4584744 -0.96568859
1.815431 3.456547 -0.95329797
1.8241215 3.4484861 -0.9403587
1.8287563 3.4220312 -0.92580616
1.8332102 3.3953316 -0.91138029
1.8379543 3.3705108 -0.8972643
1.8430945 3.347985 -0.88347811
1.8503944 3.3354676 -0.87062448
1.8592007 3.3298175 -0.85838211
1.8694823 3.3307054 -0.84667373
1.8813097 3.3382514 -0.83545828
1.8930668 3.3454049 -0.82418931
1.9027998 3.3439515 -0.81231356
1.912848 3.3438838 -0.80054796
1.9234109 3.3459904 -0.78893149
1.9343684 3.3497198 -0.77741456
1.9447145 3.3509438 -0.76574683
1.9552678 3.3530233 -0.75413251
1.9661824 3.3565514 -0.74259627
1.9770665 3.3599417 -0.73104775
1.9870883 3.3599312 -0.71933287
1.9959145 3.3553097 -0.70742267
2.0034783 3.3459346 -0.69534564
2.0120406 3.3405745 -0.68348879
2.0234659 3.3462121 -0.67208385
2.0352669 3.3532126 -0.66071087
2.0476453 3.3622968 -0.64938301
2.0606468 3.3735859 -0.63808835
2.0766299 3.3957016 -0.62704813
2.0948675 3.4257381 -0.61610878
2.1134009 3.4564202 -0.60504705
2.1303442 3.4809582 -0.59372151
2.1475902 3.506243 -0.58230001
2.1600509 3.51425 -0.57050371
0.076212525 2.7045381 -2.7489901
0.08437115 2.7179997 -2.7441685
0.091809332 2.7359102 -2.7417505
